702192.164 3153812.42 223.438 
702193.164 3153812.42 223.42 
702194.164 3153812.42 223.383 
702195.164 3153812.42 223.364 
702196.164 3153812.42 223.346 
702197.164 3153812.42 223.327 
702198.164 3153812.42 223.29 
702199.164 3153812.42 223.272 
702200.164 3153812.42 223.253 
702201.164 3153812.42 223.235 
702202.164 3153812.42 223.216 
702203.164 3153812.42 223.179 
702204.164 3153812.42 223.161 
702205.164 3153812.42 223.142 
702206.164 3153812.42 223.124 
702115.164 3153811.42 224.701 
702116.164 3153811.42 224.691 
702117.164 3153811.42 224.682 
702118.164 3153811.42 224.672 
702119.164 3153811.42 224.651 
702120.164 3153811.42 224.64 
702121.164 3153811.42 224.629 
702122.164 3153811.42 224.618 
702123.164 3153811.42 224.608 
702124.164 3153811.42 224.586 
702125.164 3153811.42 224.575 
702126.164 3153811.42 224.564 
702127.164 3153811.42 224.553 
702128.164 3153811.42 224.531 
702129.164 3153811.42 224.521 
702130.164 3153811.42 224.51 
702131.164 3153811.42 224.499 
702132.164 3153811.42 224.488 
702133.164 3153811.42 224.466 
702134.164 3153811.42 224.455 
702135.164 3153811.42 224.444 
702136.164 3153811.42 224.433 
702137.164 3153811.42 224.412 
702138.164 3153811.42 224.401 
702139.164 3153811.42 224.39 
702140.164 3153811.42 224.378 
702141.164 3153811.42 224.356 
702142.164 3153811.42 224.345 
702143.164 3153811.42 224.333 
702144.164 3153811.42 224.322 
702145.164 3153811.42 224.31 
702146.164 3153811.42 224.287 
702147.164 3153811.42 224.276 
702148.164 3153811.42 224.264 
702149.164 3153811.42 224.253 
702150.164 3153811.42 224.23 
702151.164 3153811.42 224.218 
702152.164 3153811.42 224.207 
702153.164 3153811.42 224.195 
702154.164 3153811.42 224.172 
702155.164 3153811.42 224.161 
702156.164 3153811.42 224.149 
702157.164 3153811.42 224.138 
702158.164 3153811.42 224.126 
702159.164 3153811.42 224.103 
702160.164 3153811.42 224.092 
702161.164 3153811.42 224.08 
702162.164 3153811.42 224.069 
702163.164 3153811.42 224.046 
702164.164 3153811.42 224.034 
702165.164 3153811.42 224.023 
702166.164 3153811.42 224.011 
702167.164 3153811.42 224.0 
702168.164 3153811.42 223.975 
702169.164 3153811.42 223.956 
702170.164 3153811.42 223.938 
702171.164 3153811.42 223.919 
702172.164 3153811.42 223.882 
702173.164 3153811.42 223.864 
702174.164 3153811.42 223.845 
702175.164 3153811.42 223.827 
702176.164 3153811.42 223.79 
702177.164 3153811.42 223.771 
702178.164 3153811.42 223.753 
702179.164 3153811.42 223.734 
702180.164 3153811.42 223.716 
702181.164 3153811.42 223.679 
702182.164 3153811.42 223.66 
702183.164 3153811.42 223.642 
702184.164 3153811.42 223.623 
702185.164 3153811.42 223.586 
702186.164 3153811.42 223.568 
702187.164 3153811.42 223.549 
702188.164 3153811.42 223.531 
702189.164 3153811.42 223.512 
702190.164 3153811.42 223.475 
702191.164 3153811.42 223.457 
702192.164 3153811.42 223.438 
702193.164 3153811.42 223.42 
702194.164 3153811.42 223.383 
702195.164 3153811.42 223.364 
702196.164 3153811.42 223.346 
702197.164 3153811.42 223.327 
702198.164 3153811.42 223.29 
702199.164 3153811.42 223.272 
702200.164 3153811.42 223.253 
702201.164 3153811.42 223.235 
702202.164 3153811.42 223.216 
702203.164 3153811.42 223.179 
702204.164 3153811.42 223.161 
702205.164 3153811.42 223.142 
702206.164 3153811.42 223.124 
702207.164 3153811.42 223.087 
702115.164 3153810.42 224.697 
702116.164 3153810.42 224.687 
702117.164 3153810.42 224.677 
702118.164 3153810.42 224.668 
702119.164 3153810.42 224.649 
702120.164 3153810.42 224.639 
702121.164 3153810.42 224.628 
702122.164 3153810.42 224.617 
702123.164 3153810.42 224.606 
702124.164 3153810.42 224.584 
702125.164 3153810.42 224.574 
702126.164 3153810.42 224.563 
702127.164 3153810.42 224.552 
702128.164 3153810.42 224.53 
702129.164 3153810.42 224.519 
702130.164 3153810.42 224.508 
702131.164 3153810.42 224.497 
702132.164 3153810.42 224.486 
702133.164 3153810.42 224.465 
702134.164 3153810.42 224.454 
702135.164 3153810.42 224.443 
702136.164 3153810.42 224.432 
702137.164 3153810.42 224.41 
702138.164 3153810.42 224.399 
702139.164 3153810.42 224.389 
702140.164 3153810.42 224.378 
702141.164 3153810.42 224.356 
702142.164 3153810.42 224.345 
702143.164 3153810.42 224.333 
702144.164 3153810.42 224.322 
702145.164 3153810.42 224.311 
702146.164 3153810.42 224.288 
702147.164 3153810.42 224.277 
702148.164 3153810.42 224.265 
702149.164 3153810.42 224.254 
702150.164 3153810.42 224.231 
702151.164 3153810.42 224.219 
702152.164 3153810.42 224.208 
702153.164 3153810.42 224.196 
702154.164 3153810.42 224.173 
702155.164 3153810.42 224.162 
702156.164 3153810.42 224.15 
702157.164 3153810.42 224.139 
702158.164 3153810.42 224.127 
702159.164 3153810.42 224.104 
702160.164 3153810.42 224.093 
702161.164 3153810.42 224.081 
702162.164 3153810.42 224.07 
702163.164 3153810.42 224.047 
702164.164 3153810.42 224.035 
702165.164 3153810.42 224.024 
702166.164 3153810.42 224.012 
702167.164 3153810.42 224.001 
702168.164 3153810.42 223.975 
702169.164 3153810.42 223.956 
702170.164 3153810.42 223.938 
702171.164 3153810.42 223.919 
702172.164 3153810.42 223.882 
702173.164 3153810.42 223.864 
702174.164 3153810.42 223.845 
702175.164 3153810.42 223.827 
702176.164 3153810.42 223.79 
702177.164 3153810.42 223.771 
702178.164 3153810.42 223.753 
702179.164 3153810.42 223.734 
702180.164 3153810.42 223.716 
702181.164 3153810.42 223.679 
702182.164 3153810.42 223.66 
702183.164 3153810.42 223.642 
702184.164 3153810.42 223.623 
702185.164 3153810.42 223.586 
702186.164 3153810.42 223.568 
702187.164 3153810.42 223.549 
702188.164 3153810.42 223.531 
702189.164 3153810.42 223.512 
702190.164 3153810.42 223.475 
702191.164 3153810.42 223.457 
702192.164 3153810.42 223.438 
702193.164 3153810.42 223.42 
702194.164 3153810.42 223.383 
702195.164 3153810.42 223.364 
702196.164 3153810.42 223.346 
702197.164 3153810.42 223.327 
702198.164 3153810.42 223.29 
702199.164 3153810.42 223.272 
702200.164 3153810.42 223.253 
702201.164 3153810.42 223.235 
702202.164 3153810.42 223.216 
702203.164 3153810.42 223.179 
702204.164 3153810.42 223.161 
702205.164 3153810.42 223.142 
702206.164 3153810.42 223.124 
702207.164 3153810.42 223.087 
702208.164 3153810.42 223.068 
702115.164 3153809.42 224.689 
702116.164 3153809.42 224.68 
702117.164 3153809.42 224.671 
702118.164 3153809.42 224.661 
702119.164 3153809.42 224.64 
702120.164 3153809.42 224.631 
702121.164 3153809.42 224.622 
702122.164 3153809.42 224.612 
702123.164 3153809.42 224.603 
702124.164 3153809.42 224.582 
702125.164 3153809.42 224.571 
702126.164 3153809.42 224.56 
702127.164 3153809.42 224.549 
702128.164 3153809.42 224.527 
702129.164 3153809.42 224.516 
702130.164 3153809.42 224.505 
702131.164 3153809.42 224.495 
702132.164 3153809.42 224.484 
702133.164 3153809.42 224.462 
702134.164 3153809.42 224.451 
702135.164 3153809.42 224.44 
702136.164 3153809.42 224.429 
702137.164 3153809.42 224.408 
702138.164 3153809.42 224.397 
702139.164 3153809.42 224.386 
702140.164 3153809.42 224.375 
702141.164 3153809.42 224.353 
702142.164 3153809.42 224.342 
702143.164 3153809.42 224.331 
702144.164 3153809.42 224.32 
702145.164 3153809.42 224.31 
702146.164 3153809.42 224.288 
702147.164 3153809.42 224.277 
702148.164 3153809.42 224.266 
702149.164 3153809.42 224.255 
702150.164 3153809.42 224.232 
702151.164 3153809.42 224.221 
702152.164 3153809.42 224.209 
702153.164 3153809.42 224.198 
702154.164 3153809.42 224.175 
702155.164 3153809.42 224.163 
702156.164 3153809.42 224.152 
702157.164 3153809.42 224.14 
702158.164 3153809.42 224.129 
702159.164 3153809.42 224.106 
702160.164 3153809.42 224.094 
702161.164 3153809.42 224.083 
702162.164 3153809.42 224.072 
702163.164 3153809.42 224.049 
702164.164 3153809.42 224.037 
702165.164 3153809.42 224.026 
702166.164 3153809.42 224.014 
702167.164 3153809.42 224.003 
702168.164 3153809.42 223.975 
702169.164 3153809.42 223.956 
702170.164 3153809.42 223.938 
702171.164 3153809.42 223.919 
702172.164 3153809.42 223.882 
702173.164 3153809.42 223.864 
702174.164 3153809.42 223.845 
702175.164 3153809.42 223.827 
702176.164 3153809.42 223.79 
702177.164 3153809.42 223.771 
702178.164 3153809.42 223.753 
702179.164 3153809.42 223.734 
702180.164 3153809.42 223.716 
702181.164 3153809.42 223.679 
702182.164 3153809.42 223.66 
702183.164 3153809.42 223.642 
702184.164 3153809.42 223.623 
702185.164 3153809.42 223.586 
702186.164 3153809.42 223.568 
702187.164 3153809.42 223.549 
702188.164 3153809.42 223.531 
702189.164 3153809.42 223.512 
702190.164 3153809.42 223.475 
702191.164 3153809.42 223.457 
702192.164 3153809.42 223.438 
702193.164 3153809.42 223.42 
702194.164 3153809.42 223.383 
702195.164 3153809.42 223.364 
702196.164 3153809.42 223.346 
702197.164 3153809.42 223.327 
702198.164 3153809.42 223.29 
702199.164 3153809.42 223.272 
702200.164 3153809.42 223.253 
702201.164 3153809.42 223.235 
702202.164 3153809.42 223.216 
702203.164 3153809.42 223.179 
702204.164 3153809.42 223.161 
702205.164 3153809.42 223.142 
702206.164 3153809.42 223.124 
702207.164 3153809.42 223.087 
702208.164 3153809.42 223.068 
702209.164 3153809.42 223.05 
702114.164 3153808.42 224.703 
702115.164 3153808.42 224.685 
702116.164 3153808.42 224.676 
702117.164 3153808.42 224.666 
702118.164 3153808.42 224.657 
702119.164 3153808.42 224.638 
702120.164 3153808.42 224.627 
702121.164 3153808.42 224.617 
702122.164 3153808.42 224.608 
702123.164 3153808.42 224.598 
702124.164 3153808.42 224.579 
702125.164 3153808.42 224.569 
702126.164 3153808.42 224.559 
702127.164 3153808.42 224.548 
702128.164 3153808.42 224.526 
702129.164 3153808.42 224.515 
702130.164 3153808.42 224.504 
702131.164 3153808.42 224.493 
702132.164 3153808.42 224.482 
702133.164 3153808.42 224.461 
702134.164 3153808.42 224.45 
702135.164 3153808.42 224.439 
702136.164 3153808.42 224.428 
702137.164 3153808.42 224.406 
702138.164 3153808.42 224.395 
702139.164 3153808.42 224.384 
702140.164 3153808.42 224.373 
702141.164 3153808.42 224.352 
702142.164 3153808.42 224.341 
702143.164 3153808.42 224.33 
702144.164 3153808.42 224.319 
702145.164 3153808.42 224.308 
702146.164 3153808.42 224.286 
702147.164 3153808.42 224.276 
702148.164 3153808.42 224.265 
702149.164 3153808.42 224.254 
702150.164 3153808.42 224.232 
702151.164 3153808.42 224.221 
702152.164 3153808.42 224.209 
702153.164 3153808.42 224.198 
702154.164 3153808.42 224.176 
702155.164 3153808.42 224.164 
702156.164 3153808.42 224.153 
702157.164 3153808.42 224.141 
702158.164 3153808.42 224.13 
702159.164 3153808.42 224.107 
702160.164 3153808.42 224.095 
702161.164 3153808.42 224.084 
702162.164 3153808.42 224.072 
702163.164 3153808.42 224.049 
702164.164 3153808.42 224.038 
702165.164 3153808.42 224.026 
702166.164 3153808.42 224.015 
702167.164 3153808.42 224.003 
702168.164 3153808.42 223.975 
702169.164 3153808.42 223.956 
702170.164 3153808.42 223.938 
702171.164 3153808.42 223.919 
702172.164 3153808.42 223.882 
702173.164 3153808.42 223.864 
702174.164 3153808.42 223.845 
702175.164 3153808.42 223.827 
702176.164 3153808.42 223.79 
702177.164 3153808.42 223.771 
702178.164 3153808.42 223.753 
702179.164 3153808.42 223.734 
702180.164 3153808.42 223.716 
702181.164 3153808.42 223.679 
702182.164 3153808.42 223.66 
702183.164 3153808.42 223.642 
702184.164 3153808.42 223.623 
702185.164 3153808.42 223.586 
702186.164 3153808.42 223.568 
702187.164 3153808.42 223.549 
702188.164 3153808.42 223.531 
702189.164 3153808.42 223.512 
702190.164 3153808.42 223.475 
702191.164 3153808.42 223.457 
702192.164 3153808.42 223.438 
702193.164 3153808.42 223.42 
702194.164 3153808.42 223.383 
702195.164 3153808.42 223.364 
702196.164 3153808.42 223.346 
702197.164 3153808.42 223.327 
702198.164 3153808.42 223.29 
702199.164 3153808.42 223.272 
702200.164 3153808.42 223.253 
702201.164 3153808.42 223.235 
702202.164 3153808.42 223.216 
702203.164 3153808.42 223.18 
702204.164 3153808.42 223.162 
702205.164 3153808.42 223.143 
702206.164 3153808.42 223.125 
702207.164 3153808.42 223.089 
702208.164 3153808.42 223.071 
702209.164 3153808.42 223.052 
702114.164 3153807.42 224.695 
702115.164 3153807.42 224.676 
702116.164 3153807.42 224.667 
702117.164 3153807.42 224.657 
702118.164 3153807.42 224.648 
702119.164 3153807.42 224.63 
702120.164 3153807.42 224.62 
702121.164 3153807.42 224.611 
702122.164 3153807.42 224.601 
702123.164 3153807.42 224.591 
702124.164 3153807.42 224.571 
702125.164 3153807.42 224.561 
702126.164 3153807.42 224.552 
702127.164 3153807.42 224.543 
702128.164 3153807.42 224.523 
702129.164 3153807.42 224.512 
702130.164 3153807.42 224.501 
702131.164 3153807.42 224.49 
702132.164 3153807.42 224.48 
702133.164 3153807.42 224.458 
702134.164 3153807.42 224.447 
702135.164 3153807.42 224.436 
702136.164 3153807.42 224.425 
702137.164 3153807.42 224.403 
702138.164 3153807.42 224.392 
702139.164 3153807.42 224.382 
702140.164 3153807.42 224.371 
702141.164 3153807.42 224.349 
702142.164 3153807.42 224.338 
702143.164 3153807.42 224.327 
702144.164 3153807.42 224.316 
702145.164 3153807.42 224.305 
702146.164 3153807.42 224.284 
702147.164 3153807.42 224.273 
702148.164 3153807.42 224.262 
702149.164 3153807.42 224.251 
702150.164 3153807.42 224.229 
702151.164 3153807.42 224.218 
702152.164 3153807.42 224.207 
702153.164 3153807.42 224.197 
702154.164 3153807.42 224.175 
702155.164 3153807.42 224.164 
702156.164 3153807.42 224.153 
702157.164 3153807.42 224.142 
702158.164 3153807.42 224.131 
702159.164 3153807.42 224.108 
702160.164 3153807.42 224.097 
702161.164 3153807.42 224.086 
702162.164 3153807.42 224.074 
702163.164 3153807.42 224.051 
702164.164 3153807.42 224.04 
702165.164 3153807.42 224.028 
702166.164 3153807.42 224.017 
702167.164 3153807.42 224.005 
702168.164 3153807.42 223.975 
702169.164 3153807.42 223.956 
702170.164 3153807.42 223.938 
702171.164 3153807.42 223.919 
702172.164 3153807.42 223.882 
702173.164 3153807.42 223.864 
702174.164 3153807.42 223.845 
702175.164 3153807.42 223.827 
702176.164 3153807.42 223.79 
702177.164 3153807.42 223.771 
702178.164 3153807.42 223.753 
702179.164 3153807.42 223.734 
702180.164 3153807.42 223.716 
702181.164 3153807.42 223.679 
702182.164 3153807.42 223.66 
702183.164 3153807.42 223.642 
702184.164 3153807.42 223.623 
702185.164 3153807.42 223.586 
702186.164 3153807.42 223.568 
702187.164 3153807.42 223.55 
702188.164 3153807.42 223.532 
702189.164 3153807.42 223.513 
702190.164 3153807.42 223.477 
702191.164 3153807.42 223.459 
702192.164 3153807.42 223.441 
702193.164 3153807.42 223.422 
702194.164 3153807.42 223.386 
702195.164 3153807.42 223.368 
702196.164 3153807.42 223.349 
702197.164 3153807.42 223.331 
702198.164 3153807.42 223.295 
702199.164 3153807.42 223.277 
702200.164 3153807.42 223.258 
702201.164 3153807.42 223.24 
702202.164 3153807.42 223.222 
702203.164 3153807.42 223.185 
702204.164 3153807.42 223.167 
702205.164 3153807.42 223.149 
702206.164 3153807.42 223.131 
702207.164 3153807.42 223.094 
702208.164 3153807.42 223.076 
702209.164 3153807.42 223.058 
702210.164 3153807.42 223.04 
702114.164 3153806.42 224.692 
702115.164 3153806.42 224.672 
702116.164 3153806.42 224.662 
702117.164 3153806.42 224.653 
702118.164 3153806.42 224.644 
702119.164 3153806.42 224.625 
702120.164 3153806.42 224.616 
702121.164 3153806.42 224.606 
702122.164 3153806.42 224.597 
702123.164 3153806.42 224.588 
702124.164 3153806.42 224.568 
702125.164 3153806.42 224.558 
702126.164 3153806.42 224.548 
702127.164 3153806.42 224.538 
702128.164 3153806.42 224.519 
702129.164 3153806.42 224.51 
702130.164 3153806.42 224.5 
702131.164 3153806.42 224.489 
702132.164 3153806.42 224.478 
702133.164 3153806.42 224.456 
702134.164 3153806.42 224.446 
702135.164 3153806.42 224.435 
702136.164 3153806.42 224.424 
702137.164 3153806.42 224.402 
702138.164 3153806.42 224.391 
702139.164 3153806.42 224.38 
702140.164 3153806.42 224.369 
702141.164 3153806.42 224.348 
702142.164 3153806.42 224.337 
702143.164 3153806.42 224.326 
702144.164 3153806.42 224.315 
702145.164 3153806.42 224.304 
702146.164 3153806.42 224.282 
702147.164 3153806.42 224.271 
702148.164 3153806.42 224.26 
702149.164 3153806.42 224.25 
702150.164 3153806.42 224.228 
702151.164 3153806.42 224.217 
702152.164 3153806.42 224.206 
702153.164 3153806.42 224.195 
702154.164 3153806.42 224.173 
702155.164 3153806.42 224.163 
702156.164 3153806.42 224.152 
702157.164 3153806.42 224.141 
702158.164 3153806.42 224.13 
702159.164 3153806.42 224.108 
702160.164 3153806.42 224.097 
702161.164 3153806.42 224.086 
702162.164 3153806.42 224.074 
702163.164 3153806.42 224.052 
702164.164 3153806.42 224.041 
702165.164 3153806.42 224.029 
702166.164 3153806.42 224.018 
702167.164 3153806.42 224.006 
702168.164 3153806.42 223.975 
702169.164 3153806.42 223.956 
702170.164 3153806.42 223.938 
702171.164 3153806.42 223.919 
702172.164 3153806.42 223.882 
702173.164 3153806.42 223.864 
702174.164 3153806.42 223.845 
702175.164 3153806.42 223.827 
702176.164 3153806.42 223.79 
702177.164 3153806.42 223.771 
702178.164 3153806.42 223.753 
702179.164 3153806.42 223.735 
702180.164 3153806.42 223.717 
702181.164 3153806.42 223.68 
702182.164 3153806.42 223.662 
702183.164 3153806.42 223.644 
702184.164 3153806.42 223.626 
702185.164 3153806.42 223.589 
702186.164 3153806.42 223.571 
702187.164 3153806.42 223.553 
702188.164 3153806.42 223.534 
702189.164 3153806.42 223.516 
702190.164 3153806.42 223.48 
702191.164 3153806.42 223.461 
702192.164 3153806.42 223.443 
702193.164 3153806.42 223.425 
702194.164 3153806.42 223.389 
702195.164 3153806.42 223.37 
702196.164 3153806.42 223.352 
702197.164 3153806.42 223.334 
702198.164 3153806.42 223.297 
702199.164 3153806.42 223.279 
702200.164 3153806.42 223.261 
702201.164 3153806.42 223.243 
702202.164 3153806.42 223.225 
702203.164 3153806.42 223.188 
702204.164 3153806.42 223.17 
702205.164 3153806.42 223.152 
702206.164 3153806.42 223.133 
702207.164 3153806.42 223.097 
702208.164 3153806.42 223.079 
702209.164 3153806.42 223.06 
702210.164 3153806.42 223.042 
702211.164 3153806.42 223.006 
702114.164 3153805.42 224.688 
702115.164 3153805.42 224.669 
702116.164 3153805.42 224.659 
702117.164 3153805.42 224.649 
702118.164 3153805.42 224.639 
702119.164 3153805.42 224.621 
702120.164 3153805.42 224.611 
702121.164 3153805.42 224.602 
702122.164 3153805.42 224.593 
702123.164 3153805.42 224.583 
702124.164 3153805.42 224.565 
702125.164 3153805.42 224.555 
702126.164 3153805.42 224.545 
702127.164 3153805.42 224.535 
702128.164 3153805.42 224.515 
702129.164 3153805.42 224.506 
702130.164 3153805.42 224.496 
702131.164 3153805.42 224.487 
702132.164 3153805.42 224.477 
702133.164 3153805.42 224.455 
702134.164 3153805.42 224.444 
702135.164 3153805.42 224.433 
702136.164 3153805.42 224.422 
702137.164 3153805.42 224.401 
702138.164 3153805.42 224.39 
702139.164 3153805.42 224.379 
702140.164 3153805.42 224.368 
702141.164 3153805.42 224.346 
702142.164 3153805.42 224.335 
702143.164 3153805.42 224.324 
702144.164 3153805.42 224.314 
702145.164 3153805.42 224.303 
702146.164 3153805.42 224.281 
702147.164 3153805.42 224.27 
702148.164 3153805.42 224.259 
702149.164 3153805.42 224.248 
702150.164 3153805.42 224.226 
702151.164 3153805.42 224.216 
702152.164 3153805.42 224.205 
702153.164 3153805.42 224.194 
702154.164 3153805.42 224.172 
702155.164 3153805.42 224.161 
702156.164 3153805.42 224.15 
702157.164 3153805.42 224.139 
702158.164 3153805.42 224.128 
702159.164 3153805.42 224.107 
702160.164 3153805.42 224.096 
702161.164 3153805.42 224.085 
702162.164 3153805.42 224.074 
702163.164 3153805.42 224.052 
702164.164 3153805.42 224.041 
702165.164 3153805.42 224.029 
702166.164 3153805.42 224.018 
702167.164 3153805.42 224.007 
702168.164 3153805.42 223.975 
702169.164 3153805.42 223.956 
702170.164 3153805.42 223.938 
702171.164 3153805.42 223.92 
702172.164 3153805.42 223.883 
702173.164 3153805.42 223.865 
702174.164 3153805.42 223.847 
702175.164 3153805.42 223.829 
702176.164 3153805.42 223.792 
702177.164 3153805.42 223.774 
702178.164 3153805.42 223.756 
702179.164 3153805.42 223.738 
702180.164 3153805.42 223.719 
702181.164 3153805.42 223.683 
702182.164 3153805.42 223.665 
702183.164 3153805.42 223.646 
702184.164 3153805.42 223.628 
702185.164 3153805.42 223.592 
702186.164 3153805.42 223.574 
702187.164 3153805.42 223.555 
702188.164 3153805.42 223.537 
702189.164 3153805.42 223.519 
702190.164 3153805.42 223.482 
702191.164 3153805.42 223.464 
702192.164 3153805.42 223.446 
702193.164 3153805.42 223.428 
702194.164 3153805.42 223.391 
702195.164 3153805.42 223.373 
702196.164 3153805.42 223.355 
702197.164 3153805.42 223.337 
702198.164 3153805.42 223.3 
702199.164 3153805.42 223.282 
702200.164 3153805.42 223.264 
702201.164 3153805.42 223.245 
702202.164 3153805.42 223.227 
702203.164 3153805.42 223.191 
702204.164 3153805.42 223.173 
702205.164 3153805.42 223.154 
702206.164 3153805.42 223.136 
702207.164 3153805.42 223.1 
702208.164 3153805.42 223.081 
702209.164 3153805.42 223.063 
702210.164 3153805.42 223.045 
702211.164 3153805.42 223.008 
702212.164 3153805.42 222.997 
702114.164 3153804.42 224.681 
702115.164 3153804.42 224.662 
702116.164 3153804.42 224.652 
702117.164 3153804.42 224.643 
702118.164 3153804.42 224.633 
702119.164 3153804.42 224.613 
702120.164 3153804.42 224.603 
702121.164 3153804.42 224.593 
702122.164 3153804.42 224.584 
702123.164 3153804.42 224.574 
702124.164 3153804.42 224.556 
702125.164 3153804.42 224.547 
702126.164 3153804.42 224.537 
702127.164 3153804.42 224.528 
702128.164 3153804.42 224.509 
702129.164 3153804.42 224.499 
702130.164 3153804.42 224.489 
702131.164 3153804.42 224.479 
702132.164 3153804.42 224.469 
702133.164 3153804.42 224.45 
702134.164 3153804.42 224.44 
702135.164 3153804.42 224.43 
702136.164 3153804.42 224.42 
702137.164 3153804.42 224.398 
702138.164 3153804.42 224.387 
702139.164 3153804.42 224.376 
702140.164 3153804.42 224.365 
702141.164 3153804.42 224.343 
702142.164 3153804.42 224.333 
702143.164 3153804.42 224.322 
702144.164 3153804.42 224.311 
702145.164 3153804.42 224.3 
702146.164 3153804.42 224.278 
702147.164 3153804.42 224.267 
702148.164 3153804.42 224.256 
702149.164 3153804.42 224.245 
702150.164 3153804.42 224.224 
702151.164 3153804.42 224.213 
702152.164 3153804.42 224.202 
702153.164 3153804.42 224.191 
702154.164 3153804.42 224.169 
702155.164 3153804.42 224.158 
702156.164 3153804.42 224.147 
702157.164 3153804.42 224.137 
702158.164 3153804.42 224.126 
702159.164 3153804.42 224.104 
702160.164 3153804.42 224.093 
702161.164 3153804.42 224.082 
702162.164 3153804.42 224.071 
702163.164 3153804.42 224.05 
702164.164 3153804.42 224.039 
702165.164 3153804.42 224.028 
702166.164 3153804.42 224.017 
702167.164 3153804.42 224.006 
702168.164 3153804.42 223.976 
702169.164 3153804.42 223.958 
702170.164 3153804.42 223.94 
702171.164 3153804.42 223.922 
702172.164 3153804.42 223.886 
702173.164 3153804.42 223.868 
702174.164 3153804.42 223.85 
702175.164 3153804.42 223.832 
702176.164 3153804.42 223.796 
702177.164 3153804.42 223.778 
702178.164 3153804.42 223.76 
702179.164 3153804.42 223.742 
702180.164 3153804.42 223.724 
702181.164 3153804.42 223.687 
702182.164 3153804.42 223.669 
702183.164 3153804.42 223.651 
702184.164 3153804.42 223.633 
702185.164 3153804.42 223.596 
702186.164 3153804.42 223.578 
702187.164 3153804.42 223.56 
702188.164 3153804.42 223.542 
702189.164 3153804.42 223.524 
702190.164 3153804.42 223.487 
702191.164 3153804.42 223.469 
702192.164 3153804.42 223.451 
702193.164 3153804.42 223.433 
702194.164 3153804.42 223.397 
702195.164 3153804.42 223.378 
702196.164 3153804.42 223.36 
702197.164 3153804.42 223.342 
702198.164 3153804.42 223.306 
702199.164 3153804.42 223.287 
702200.164 3153804.42 223.269 
702201.164 3153804.42 223.251 
702202.164 3153804.42 223.233 
702203.164 3153804.42 223.196 
702204.164 3153804.42 223.178 
702205.164 3153804.42 223.16 
702206.164 3153804.42 223.141 
702207.164 3153804.42 223.105 
702208.164 3153804.42 223.087 
702209.164 3153804.42 223.069 
702210.164 3153804.42 223.05 
702211.164 3153804.42 223.014 
702212.164 3153804.42 222.997 
702213.164 3153804.42 222.962 
702113.164 3153803.42 224.686 
702114.164 3153803.42 224.677 
702115.164 3153803.42 224.659 
702116.164 3153803.42 224.649 
702117.164 3153803.42 224.639 
702118.164 3153803.42 224.63 
702119.164 3153803.42 224.61 
702120.164 3153803.42 224.6 
702121.164 3153803.42 224.59 
702122.164 3153803.42 224.58 
702123.164 3153803.42 224.571 
702124.164 3153803.42 224.551 
702125.164 3153803.42 224.542 
702126.164 3153803.42 224.533 
702127.164 3153803.42 224.524 
702128.164 3153803.42 224.505 
702129.164 3153803.42 224.496 
702130.164 3153803.42 224.486 
702131.164 3153803.42 224.476 
702132.164 3153803.42 224.466 
702133.164 3153803.42 224.446 
702134.164 3153803.42 224.436 
702135.164 3153803.42 224.427 
702136.164 3153803.42 224.417 
702137.164 3153803.42 224.396 
702138.164 3153803.42 224.386 
702139.164 3153803.42 224.375 
702140.164 3153803.42 224.364 
702141.164 3153803.42 224.342 
702142.164 3153803.42 224.331 
702143.164 3153803.42 224.32 
702144.164 3153803.42 224.309 
702145.164 3153803.42 224.298 
702146.164 3153803.42 224.277 
702147.164 3153803.42 224.266 
702148.164 3153803.42 224.255 
702149.164 3153803.42 224.244 
702150.164 3153803.42 224.222 
702151.164 3153803.42 224.211 
702152.164 3153803.42 224.201 
702153.164 3153803.42 224.19 
702154.164 3153803.42 224.168 
702155.164 3153803.42 224.157 
702156.164 3153803.42 224.146 
702157.164 3153803.42 224.135 
702158.164 3153803.42 224.124 
702159.164 3153803.42 224.103 
702160.164 3153803.42 224.092 
702161.164 3153803.42 224.081 
702162.164 3153803.42 224.07 
702163.164 3153803.42 224.048 
702164.164 3153803.42 224.037 
702165.164 3153803.42 224.026 
702166.164 3153803.42 224.016 
702167.164 3153803.42 224.005 
702168.164 3153803.42 223.976 
702169.164 3153803.42 223.958 
702170.164 3153803.42 223.94 
702171.164 3153803.42 223.922 
702172.164 3153803.42 223.886 
702173.164 3153803.42 223.868 
702174.164 3153803.42 223.85 
702175.164 3153803.42 223.832 
702176.164 3153803.42 223.796 
702177.164 3153803.42 223.778 
702178.164 3153803.42 223.76 
702179.164 3153803.42 223.742 
702180.164 3153803.42 223.724 
702181.164 3153803.42 223.688 
702182.164 3153803.42 223.67 
702183.164 3153803.42 223.652 
702184.164 3153803.42 223.634 
702185.164 3153803.42 223.598 
702186.164 3153803.42 223.58 
702187.164 3153803.42 223.561 
702188.164 3153803.42 223.543 
702189.164 3153803.42 223.525 
702190.164 3153803.42 223.489 
702191.164 3153803.42 223.471 
702192.164 3153803.42 223.452 
702193.164 3153803.42 223.434 
702194.164 3153803.42 223.398 
702195.164 3153803.42 223.38 
702196.164 3153803.42 223.362 
702197.164 3153803.42 223.344 
702198.164 3153803.42 223.307 
702199.164 3153803.42 223.289 
702200.164 3153803.42 223.271 
702201.164 3153803.42 223.253 
702202.164 3153803.42 223.235 
702203.164 3153803.42 223.198 
702204.164 3153803.42 223.18 
702205.164 3153803.42 223.162 
702206.164 3153803.42 223.144 
702207.164 3153803.42 223.107 
702208.164 3153803.42 223.089 
702209.164 3153803.42 223.071 
702210.164 3153803.42 223.053 
702211.164 3153803.42 223.017 
702212.164 3153803.42 222.997 
702213.164 3153803.42 222.965 
702113.164 3153802.42 224.682 
702114.164 3153802.42 224.673 
702115.164 3153802.42 224.654 
702116.164 3153802.42 224.645 
702117.164 3153802.42 224.636 
702118.164 3153802.42 224.626 
702119.164 3153802.42 224.607 
702120.164 3153802.42 224.597 
702121.164 3153802.42 224.587 
702122.164 3153802.42 224.578 
702123.164 3153802.42 224.568 
702124.164 3153802.42 224.548 
702125.164 3153802.42 224.538 
702126.164 3153802.42 224.528 
702127.164 3153802.42 224.519 
702128.164 3153802.42 224.501 
702129.164 3153802.42 224.491 
702130.164 3153802.42 224.482 
702131.164 3153802.42 224.473 
702132.164 3153802.42 224.463 
702133.164 3153802.42 224.443 
702134.164 3153802.42 224.433 
702135.164 3153802.42 224.423 
702136.164 3153802.42 224.413 
702137.164 3153802.42 224.394 
702138.164 3153802.42 224.384 
702139.164 3153802.42 224.373 
702140.164 3153802.42 224.362 
702141.164 3153802.42 224.341 
702142.164 3153802.42 224.33 
702143.164 3153802.42 224.319 
702144.164 3153802.42 224.308 
702145.164 3153802.42 224.297 
702146.164 3153802.42 224.275 
702147.164 3153802.42 224.264 
702148.164 3153802.42 224.254 
702149.164 3153802.42 224.243 
702150.164 3153802.42 224.221 
702151.164 3153802.42 224.21 
702152.164 3153802.42 224.199 
702153.164 3153802.42 224.188 
702154.164 3153802.42 224.167 
702155.164 3153802.42 224.156 
702156.164 3153802.42 224.145 
702157.164 3153802.42 224.134 
702158.164 3153802.42 224.123 
702159.164 3153802.42 224.101 
702160.164 3153802.42 224.09 
702161.164 3153802.42 224.079 
702162.164 3153802.42 224.069 
702163.164 3153802.42 224.047 
702164.164 3153802.42 224.036 
702165.164 3153802.42 224.025 
702166.164 3153802.42 224.014 
702167.164 3153802.42 224.003 
702168.164 3153802.42 223.976 
702169.164 3153802.42 223.958 
702170.164 3153802.42 223.94 
702171.164 3153802.42 223.922 
702172.164 3153802.42 223.886 
702173.164 3153802.42 223.868 
702174.164 3153802.42 223.85 
702175.164 3153802.42 223.832 
702176.164 3153802.42 223.796 
702177.164 3153802.42 223.778 
702178.164 3153802.42 223.76 
702179.164 3153802.42 223.742 
702180.164 3153802.42 223.724 
702181.164 3153802.42 223.688 
702182.164 3153802.42 223.67 
702183.164 3153802.42 223.652 
702184.164 3153802.42 223.634 
702185.164 3153802.42 223.598 
702186.164 3153802.42 223.58 
702187.164 3153802.42 223.562 
702188.164 3153802.42 223.544 
702189.164 3153802.42 223.526 
702190.164 3153802.42 223.49 
702191.164 3153802.42 223.472 
702192.164 3153802.42 223.454 
702193.164 3153802.42 223.436 
702194.164 3153802.42 223.399 
702195.164 3153802.42 223.381 
702196.164 3153802.42 223.363 
702197.164 3153802.42 223.345 
702198.164 3153802.42 223.309 
702199.164 3153802.42 223.29 
702200.164 3153802.42 223.272 
702201.164 3153802.42 223.254 
702202.164 3153802.42 223.236 
702203.164 3153802.42 223.2 
702204.164 3153802.42 223.181 
702205.164 3153802.42 223.163 
702206.164 3153802.42 223.145 
702207.164 3153802.42 223.109 
702208.164 3153802.42 223.091 
702209.164 3153802.42 223.072 
702210.164 3153802.42 223.054 
702211.164 3153802.42 223.018 
702212.164 3153802.42 223.0 
702213.164 3153802.42 222.967 
702214.164 3153802.42 222.935 
702113.164 3153801.42 224.673 
702114.164 3153801.42 224.664 
702115.164 3153801.42 224.646 
702116.164 3153801.42 224.636 
702117.164 3153801.42 224.627 
702118.164 3153801.42 224.618 
702119.164 3153801.42 224.6 
702120.164 3153801.42 224.59 
702121.164 3153801.42 224.58 
702122.164 3153801.42 224.571 
702123.164 3153801.42 224.561 
702124.164 3153801.42 224.542 
702125.164 3153801.42 224.532 
702126.164 3153801.42 224.522 
702127.164 3153801.42 224.512 
702128.164 3153801.42 224.492 
702129.164 3153801.42 224.482 
702130.164 3153801.42 224.473 
702131.164 3153801.42 224.464 
702132.164 3153801.42 224.455 
702133.164 3153801.42 224.436 
702134.164 3153801.42 224.427 
702135.164 3153801.42 224.417 
702136.164 3153801.42 224.407 
702137.164 3153801.42 224.387 
702138.164 3153801.42 224.377 
702139.164 3153801.42 224.367 
702140.164 3153801.42 224.357 
702141.164 3153801.42 224.338 
702142.164 3153801.42 224.327 
702143.164 3153801.42 224.316 
702144.164 3153801.42 224.305 
702145.164 3153801.42 224.294 
702146.164 3153801.42 224.273 
702147.164 3153801.42 224.262 
702148.164 3153801.42 224.251 
702149.164 3153801.42 224.24 
702150.164 3153801.42 224.218 
702151.164 3153801.42 224.207 
702152.164 3153801.42 224.196 
702153.164 3153801.42 224.186 
702154.164 3153801.42 224.164 
702155.164 3153801.42 224.153 
702156.164 3153801.42 224.142 
702157.164 3153801.42 224.131 
702158.164 3153801.42 224.12 
702159.164 3153801.42 224.098 
702160.164 3153801.42 224.088 
702161.164 3153801.42 224.077 
702162.164 3153801.42 224.066 
702163.164 3153801.42 224.044 
702164.164 3153801.42 224.033 
702165.164 3153801.42 224.022 
702166.164 3153801.42 224.011 
702167.164 3153801.42 224.0 
702168.164 3153801.42 223.976 
702169.164 3153801.42 223.958 
702170.164 3153801.42 223.94 
702171.164 3153801.42 223.922 
702172.164 3153801.42 223.886 
702173.164 3153801.42 223.868 
702174.164 3153801.42 223.85 
702175.164 3153801.42 223.832 
702176.164 3153801.42 223.796 
702177.164 3153801.42 223.778 
702178.164 3153801.42 223.76 
702179.164 3153801.42 223.742 
702180.164 3153801.42 223.724 
702181.164 3153801.42 223.688 
702182.164 3153801.42 223.67 
702183.164 3153801.42 223.652 
702184.164 3153801.42 223.634 
702185.164 3153801.42 223.598 
702186.164 3153801.42 223.58 
702187.164 3153801.42 223.562 
702188.164 3153801.42 223.544 
702189.164 3153801.42 223.526 
702190.164 3153801.42 223.49 
702191.164 3153801.42 223.472 
702192.164 3153801.42 223.454 
702193.164 3153801.42 223.436 
702194.164 3153801.42 223.4 
702195.164 3153801.42 223.382 
702196.164 3153801.42 223.364 
702197.164 3153801.42 223.346 
702198.164 3153801.42 223.31 
702199.164 3153801.42 223.292 
702200.164 3153801.42 223.274 
702201.164 3153801.42 223.256 
702202.164 3153801.42 223.238 
702203.164 3153801.42 223.202 
702204.164 3153801.42 223.184 
702205.164 3153801.42 223.166 
702206.164 3153801.42 223.148 
702207.164 3153801.42 223.112 
702208.164 3153801.42 223.093 
702209.164 3153801.42 223.075 
702210.164 3153801.42 223.057 
702211.164 3153801.42 223.021 
702212.164 3153801.42 223.003 
702213.164 3153801.42 222.972 
702214.164 3153801.42 222.94 
702215.164 3153801.42 222.907 
702113.164 3153800.42 224.669 
702114.164 3153800.42 224.66 
702115.164 3153800.42 224.641 
702116.164 3153800.42 224.632 
702117.164 3153800.42 224.623 
702118.164 3153800.42 224.614 
702119.164 3153800.42 224.595 
702120.164 3153800.42 224.586 
702121.164 3153800.42 224.577 
702122.164 3153800.42 224.567 
702123.164 3153800.42 224.558 
702124.164 3153800.42 224.538 
702125.164 3153800.42 224.529 
702126.164 3153800.42 224.519 
702127.164 3153800.42 224.509 
702128.164 3153800.42 224.489 
702129.164 3153800.42 224.479 
702130.164 3153800.42 224.469 
702131.164 3153800.42 224.459 
702132.164 3153800.42 224.45 
702133.164 3153800.42 224.432 
702134.164 3153800.42 224.422 
702135.164 3153800.42 224.413 
702136.164 3153800.42 224.404 
702137.164 3153800.42 224.384 
702138.164 3153800.42 224.374 
702139.164 3153800.42 224.364 
702140.164 3153800.42 224.354 
702141.164 3153800.42 224.334 
702142.164 3153800.42 224.325 
702143.164 3153800.42 224.315 
702144.164 3153800.42 224.304 
702145.164 3153800.42 224.293 
702146.164 3153800.42 224.271 
702147.164 3153800.42 224.26 
702148.164 3153800.42 224.249 
702149.164 3153800.42 224.239 
702150.164 3153800.42 224.217 
702151.164 3153800.42 224.206 
702152.164 3153800.42 224.195 
702153.164 3153800.42 224.184 
702154.164 3153800.42 224.162 
702155.164 3153800.42 224.151 
702156.164 3153800.42 224.141 
702157.164 3153800.42 224.13 
702158.164 3153800.42 224.119 
702159.164 3153800.42 224.097 
702160.164 3153800.42 224.086 
702161.164 3153800.42 224.075 
702162.164 3153800.42 224.064 
702163.164 3153800.42 224.043 
702164.164 3153800.42 224.032 
702165.164 3153800.42 224.021 
702166.164 3153800.42 224.01 
702167.164 3153800.42 224.0 
702168.164 3153800.42 223.976 
702169.164 3153800.42 223.958 
702170.164 3153800.42 223.94 
702171.164 3153800.42 223.922 
702172.164 3153800.42 223.886 
702173.164 3153800.42 223.868 
702174.164 3153800.42 223.85 
702175.164 3153800.42 223.832 
702176.164 3153800.42 223.796 
702177.164 3153800.42 223.778 
702178.164 3153800.42 223.76 
702179.164 3153800.42 223.742 
702180.164 3153800.42 223.724 
702181.164 3153800.42 223.688 
702182.164 3153800.42 223.67 
702183.164 3153800.42 223.652 
702184.164 3153800.42 223.634 
702185.164 3153800.42 223.598 
702186.164 3153800.42 223.58 
702187.164 3153800.42 223.562 
702188.164 3153800.42 223.544 
702189.164 3153800.42 223.526 
702190.164 3153800.42 223.49 
702191.164 3153800.42 223.472 
702192.164 3153800.42 223.454 
702193.164 3153800.42 223.436 
702194.164 3153800.42 223.4 
702195.164 3153800.42 223.382 
702196.164 3153800.42 223.364 
702197.164 3153800.42 223.346 
702198.164 3153800.42 223.31 
702199.164 3153800.42 223.292 
702200.164 3153800.42 223.274 
702201.164 3153800.42 223.256 
702202.164 3153800.42 223.238 
702203.164 3153800.42 223.202 
702204.164 3153800.42 223.184 
702205.164 3153800.42 223.166 
702206.164 3153800.42 223.148 
702207.164 3153800.42 223.112 
702208.164 3153800.42 223.094 
702209.164 3153800.42 223.076 
702210.164 3153800.42 223.058 
702211.164 3153800.42 223.022 
702212.164 3153800.42 223.004 
702213.164 3153800.42 222.973 
702214.164 3153800.42 222.94 
702215.164 3153800.42 222.905 
702216.164 3153800.42 222.854 
702113.164 3153799.42 224.66 
702114.164 3153799.42 224.651 
702115.164 3153799.42 224.633 
702116.164 3153799.42 224.623 
702117.164 3153799.42 224.614 
702118.164 3153799.42 224.605 
702119.164 3153799.42 224.587 
702120.164 3153799.42 224.578 
702121.164 3153799.42 224.568 
702122.164 3153799.42 224.559 
702123.164 3153799.42 224.55 
702124.164 3153799.42 224.531 
702125.164 3153799.42 224.522 
702126.164 3153799.42 224.512 
702127.164 3153799.42 224.502 
702128.164 3153799.42 224.483 
702129.164 3153799.42 224.473 
702130.164 3153799.42 224.463 
702131.164 3153799.42 224.453 
702132.164 3153799.42 224.444 
702133.164 3153799.42 224.424 
702134.164 3153799.42 224.414 
702135.164 3153799.42 224.404 
702136.164 3153799.42 224.395 
702137.164 3153799.42 224.376 
702138.164 3153799.42 224.367 
702139.164 3153799.42 224.358 
702140.164 3153799.42 224.348 
702141.164 3153799.42 224.328 
702142.164 3153799.42 224.318 
702143.164 3153799.42 224.308 
702144.164 3153799.42 224.298 
702145.164 3153799.42 224.288 
702146.164 3153799.42 224.268 
702147.164 3153799.42 224.258 
702148.164 3153799.42 224.247 
702149.164 3153799.42 224.236 
702150.164 3153799.42 224.214 
702151.164 3153799.42 224.203 
702152.164 3153799.42 224.192 
702153.164 3153799.42 224.181 
702154.164 3153799.42 224.16 
702155.164 3153799.42 224.149 
702156.164 3153799.42 224.138 
702157.164 3153799.42 224.127 
702158.164 3153799.42 224.116 
702159.164 3153799.42 224.094 
702160.164 3153799.42 224.083 
702161.164 3153799.42 224.073 
702162.164 3153799.42 224.062 
702163.164 3153799.42 224.04 
702164.164 3153799.42 224.029 
702165.164 3153799.42 224.018 
702166.164 3153799.42 224.007 
702167.164 3153799.42 224.0 
702168.164 3153799.42 223.976 
702169.164 3153799.42 223.958 
702170.164 3153799.42 223.94 
702171.164 3153799.42 223.922 
702172.164 3153799.42 223.886 
702173.164 3153799.42 223.868 
702174.164 3153799.42 223.85 
702175.164 3153799.42 223.832 
702176.164 3153799.42 223.796 
702177.164 3153799.42 223.778 
702178.164 3153799.42 223.76 
702179.164 3153799.42 223.742 
702180.164 3153799.42 223.724 
702181.164 3153799.42 223.688 
702182.164 3153799.42 223.67 
702183.164 3153799.42 223.652 
702184.164 3153799.42 223.634 
702185.164 3153799.42 223.598 
702186.164 3153799.42 223.58 
702187.164 3153799.42 223.562 
702188.164 3153799.42 223.544 
702189.164 3153799.42 223.526 
702190.164 3153799.42 223.49 
702191.164 3153799.42 223.472 
702192.164 3153799.42 223.454 
702193.164 3153799.42 223.436 
702194.164 3153799.42 223.4 
702195.164 3153799.42 223.382 
702196.164 3153799.42 223.364 
702197.164 3153799.42 223.346 
702198.164 3153799.42 223.31 
702199.164 3153799.42 223.292 
702200.164 3153799.42 223.274 
702201.164 3153799.42 223.256 
702202.164 3153799.42 223.238 
702203.164 3153799.42 223.202 
702204.164 3153799.42 223.184 
702205.164 3153799.42 223.166 
702206.164 3153799.42 223.148 
702207.164 3153799.42 223.112 
702208.164 3153799.42 223.094 
702209.164 3153799.42 223.076 
702210.164 3153799.42 223.058 
702211.164 3153799.42 223.022 
702212.164 3153799.42 223.003 
702213.164 3153799.42 222.971 
702214.164 3153799.42 222.936 
702215.164 3153799.42 222.905 
702216.164 3153799.42 222.871 
702217.164 3153799.42 222.846 
702112.164 3153798.42 224.665 
702113.164 3153798.42 224.656 
702114.164 3153798.42 224.647 
702115.164 3153798.42 224.628 
702116.164 3153798.42 224.619 
702117.164 3153798.42 224.61 
702118.164 3153798.42 224.601 
702119.164 3153798.42 224.582 
702120.164 3153798.42 224.573 
702121.164 3153798.42 224.564 
702122.164 3153798.42 224.555 
702123.164 3153798.42 224.546 
702124.164 3153798.42 224.527 
702125.164 3153798.42 224.518 
702126.164 3153798.42 224.508 
702127.164 3153798.42 224.499 
702128.164 3153798.42 224.479 
702129.164 3153798.42 224.47 
702130.164 3153798.42 224.46 
702131.164 3153798.42 224.45 
702132.164 3153798.42 224.441 
702133.164 3153798.42 224.421 
702134.164 3153798.42 224.411 
702135.164 3153798.42 224.401 
702136.164 3153798.42 224.391 
702137.164 3153798.42 224.372 
702138.164 3153798.42 224.362 
702139.164 3153798.42 224.353 
702140.164 3153798.42 224.344 
702141.164 3153798.42 224.325 
702142.164 3153798.42 224.315 
702143.164 3153798.42 224.305 
702144.164 3153798.42 224.295 
702145.164 3153798.42 224.285 
702146.164 3153798.42 224.264 
702147.164 3153798.42 224.255 
702148.164 3153798.42 224.245 
702149.164 3153798.42 224.234 
702150.164 3153798.42 224.213 
702151.164 3153798.42 224.202 
702152.164 3153798.42 224.191 
702153.164 3153798.42 224.18 
702154.164 3153798.42 224.158 
702155.164 3153798.42 224.147 
702156.164 3153798.42 224.136 
702157.164 3153798.42 224.126 
702158.164 3153798.42 224.115 
702159.164 3153798.42 224.093 
702160.164 3153798.42 224.082 
702161.164 3153798.42 224.071 
702162.164 3153798.42 224.06 
702163.164 3153798.42 224.038 
702164.164 3153798.42 224.028 
702165.164 3153798.42 224.017 
702166.164 3153798.42 224.006 
702167.164 3153798.42 224.0 
702168.164 3153798.42 223.976 
702169.164 3153798.42 223.958 
702170.164 3153798.42 223.94 
702171.164 3153798.42 223.922 
702172.164 3153798.42 223.886 
702173.164 3153798.42 223.868 
702174.164 3153798.42 223.85 
702175.164 3153798.42 223.832 
702176.164 3153798.42 223.796 
702177.164 3153798.42 223.778 
702178.164 3153798.42 223.76 
702179.164 3153798.42 223.742 
702180.164 3153798.42 223.724 
702181.164 3153798.42 223.688 
702182.164 3153798.42 223.67 
702183.164 3153798.42 223.652 
702184.164 3153798.42 223.634 
702185.164 3153798.42 223.598 
702186.164 3153798.42 223.58 
702187.164 3153798.42 223.562 
702188.164 3153798.42 223.544 
702189.164 3153798.42 223.526 
702190.164 3153798.42 223.49 
702191.164 3153798.42 223.472 
702192.164 3153798.42 223.454 
702193.164 3153798.42 223.436 
702194.164 3153798.42 223.4 
702195.164 3153798.42 223.382 
702196.164 3153798.42 223.364 
702197.164 3153798.42 223.346 
702198.164 3153798.42 223.31 
702199.164 3153798.42 223.292 
702200.164 3153798.42 223.274 
702201.164 3153798.42 223.256 
702202.164 3153798.42 223.238 
702203.164 3153798.42 223.202 
702204.164 3153798.42 223.184 
702205.164 3153798.42 223.166 
702206.164 3153798.42 223.147 
702207.164 3153798.42 223.111 
702208.164 3153798.42 223.093 
702209.164 3153798.42 223.075 
702210.164 3153798.42 223.057 
702211.164 3153798.42 223.02 
702212.164 3153798.42 223.002 
702213.164 3153798.42 222.969 
702214.164 3153798.42 222.934 
702215.164 3153798.42 222.922 
702216.164 3153798.42 222.871 
702217.164 3153798.42 222.846 
702112.164 3153797.42 224.66 
702113.164 3153797.42 224.651 
702114.164 3153797.42 224.642 
702115.164 3153797.42 224.624 
702116.164 3153797.42 224.615 
702117.164 3153797.42 224.605 
702118.164 3153797.42 224.596 
702119.164 3153797.42 224.578 
702120.164 3153797.42 224.569 
702121.164 3153797.42 224.56 
702122.164 3153797.42 224.55 
702123.164 3153797.42 224.541 
702124.164 3153797.42 224.523 
702125.164 3153797.42 224.514 
702126.164 3153797.42 224.505 
702127.164 3153797.42 224.495 
702128.164 3153797.42 224.476 
702129.164 3153797.42 224.466 
702130.164 3153797.42 224.457 
702131.164 3153797.42 224.447 
702132.164 3153797.42 224.437 
702133.164 3153797.42 224.418 
702134.164 3153797.42 224.408 
702135.164 3153797.42 224.398 
702136.164 3153797.42 224.388 
702137.164 3153797.42 224.368 
702138.164 3153797.42 224.358 
702139.164 3153797.42 224.349 
702140.164 3153797.42 224.339 
702141.164 3153797.42 224.321 
702142.164 3153797.42 224.312 
702143.164 3153797.42 224.302 
702144.164 3153797.42 224.292 
702145.164 3153797.42 224.282 
702146.164 3153797.42 224.261 
702147.164 3153797.42 224.251 
702148.164 3153797.42 224.241 
702149.164 3153797.42 224.232 
702150.164 3153797.42 224.211 
702151.164 3153797.42 224.2 
702152.164 3153797.42 224.189 
702153.164 3153797.42 224.179 
702154.164 3153797.42 224.157 
702155.164 3153797.42 224.146 
702156.164 3153797.42 224.135 
702157.164 3153797.42 224.124 
702158.164 3153797.42 224.113 
702159.164 3153797.42 224.092 
702160.164 3153797.42 224.081 
702161.164 3153797.42 224.07 
702162.164 3153797.42 224.059 
702163.164 3153797.42 224.037 
702164.164 3153797.42 224.026 
702165.164 3153797.42 224.015 
702166.164 3153797.42 224.004 
702167.164 3153797.42 224.0 
702168.164 3153797.42 223.976 
702169.164 3153797.42 223.958 
702170.164 3153797.42 223.94 
702171.164 3153797.42 223.922 
702172.164 3153797.42 223.886 
702173.164 3153797.42 223.868 
702174.164 3153797.42 223.85 
702175.164 3153797.42 223.832 
702176.164 3153797.42 223.796 
702177.164 3153797.42 223.778 
702178.164 3153797.42 223.76 
702179.164 3153797.42 223.742 
702180.164 3153797.42 223.724 
702181.164 3153797.42 223.688 
702182.164 3153797.42 223.67 
702183.164 3153797.42 223.652 
702184.164 3153797.42 223.634 
702185.164 3153797.42 223.598 
702186.164 3153797.42 223.58 
702187.164 3153797.42 223.562 
702188.164 3153797.42 223.544 
702189.164 3153797.42 223.526 
702190.164 3153797.42 223.49 
702191.164 3153797.42 223.472 
702192.164 3153797.42 223.454 
702193.164 3153797.42 223.436 
702194.164 3153797.42 223.4 
702195.164 3153797.42 223.382 
702196.164 3153797.42 223.364 
702197.164 3153797.42 223.346 
702198.164 3153797.42 223.31 
702199.164 3153797.42 223.292 
702200.164 3153797.42 223.273 
702201.164 3153797.42 223.255 
702202.164 3153797.42 223.237 
702203.164 3153797.42 223.201 
702204.164 3153797.42 223.183 
702205.164 3153797.42 223.165 
702206.164 3153797.42 223.146 
702207.164 3153797.42 223.11 
702208.164 3153797.42 223.092 
702209.164 3153797.42 223.074 
702210.164 3153797.42 223.056 
702211.164 3153797.42 223.019 
702212.164 3153797.42 223.001 
702213.164 3153797.42 222.967 
702214.164 3153797.42 222.947 
702215.164 3153797.42 222.922 
702216.164 3153797.42 222.872 
702217.164 3153797.42 222.846 
702218.164 3153797.42 222.821 
702112.164 3153796.42 224.652 
702113.164 3153796.42 224.643 
702114.164 3153796.42 224.634 
702115.164 3153796.42 224.615 
702116.164 3153796.42 224.606 
702117.164 3153796.42 224.597 
702118.164 3153796.42 224.588 
702119.164 3153796.42 224.569 
702120.164 3153796.42 224.56 
702121.164 3153796.42 224.551 
702122.164 3153796.42 224.542 
702123.164 3153796.42 224.533 
702124.164 3153796.42 224.514 
702125.164 3153796.42 224.505 
702126.164 3153796.42 224.496 
702127.164 3153796.42 224.487 
702128.164 3153796.42 224.468 
702129.164 3153796.42 224.459 
702130.164 3153796.42 224.45 
702131.164 3153796.42 224.44 
702132.164 3153796.42 224.43 
702133.164 3153796.42 224.411 
702134.164 3153796.42 224.401 
702135.164 3153796.42 224.391 
702136.164 3153796.42 224.382 
702137.164 3153796.42 224.362 
702138.164 3153796.42 224.352 
702139.164 3153796.42 224.342 
702140.164 3153796.42 224.332 
702141.164 3153796.42 224.312 
702142.164 3153796.42 224.303 
702143.164 3153796.42 224.293 
702144.164 3153796.42 224.284 
702145.164 3153796.42 224.275 
702146.164 3153796.42 224.255 
702147.164 3153796.42 224.245 
702148.164 3153796.42 224.235 
702149.164 3153796.42 224.225 
702150.164 3153796.42 224.205 
702151.164 3153796.42 224.195 
